# .PCD v0.7 - Point Cloud Data file format
VERSION 0.7
FIELDS x y z intensity
SIZE 4 4 4 4
TYPE F F F F
COUNT 1 1 1 1
WIDTH 1257
HEIGHT 1
VIEWPOINT 0 0 0 1 0 0 0
POINTS 1257
DATA ascii
5.1640816 5.945735 1.0999092 10.66613
5.4517775 5.944726 1.1384716 7.291935
5.7681241 5.9395885 1.1631752 10.579386
6.0171895 5.9727697 0.92853343 1
3.5907524 6.2463284 0.92671937 20.561169
3.6216466 6.0770359 0.9817633 25.958054
4.0664186 6.0304203 1.0788379 10.5
4.3905478 6.0318575 1.0640767 1.5
4.7317982 6.0017028 1.0365977 1
4.9000468 6.0073299 1.108639 2.0833333
5.3042464 6.0168943 1.0744954 3.9875
5.4627852 6.0113707 1.1288614 4.4583335
5.912209 6.0151577 1.1101012 1.6666667
26.933434 6.2240725 1.045059 8.526042
3.5922117 6.5090094 0.95180809 16.302937
3.6154337 6.4837656 0.94397128 31.795204
26.9328 6.3642788 0.96417797 7
27.033379 6.3973475 1.0190299 8.5
3.5921602 6.6767154 1.0543327 14.057486
3.611383 6.6192875 0.93585336 18.484436
3.7195835 7.0546484 1.0305451 3
3.9511132 7.1702991 1.0597112 1.9375
3.2584548 7.3268251 1.1354287 21.75
3.4630098 7.2005682 1.1470436 19.6
3.6990464 7.4464784 1.1352162 9.333333
3.9538283 7.4093132 1.121236 2.8385417
2.7308388 7.6309366 0.97606701 40
3.5613017 7.753674 1.181856 3.5621867
3.6787076 7.6597853 1.0798874 14.821329
3.9512787 7.5737896 0.9700526 1.8467174
4.2529345 7.7472057 1.0419893 6.875
-10.822886 8.0790253 0.94427085 12.708333
-10.692511 8.0878849 1.0548702 24.004543
-7.2078872 8.0968933 1.168628 98
-7.1053853 8.0918531 1.0646105 89.5625
2.5541263 7.9206252 0.9758265 21.5625
3.5975394 7.9610338 1.1433822 34.739647
3.6093724 7.978466 1.1263797 35.435596
4.3260479 7.8183928 1.0093834 1
-10.86496 8.1201916 1.0628299 4.5955381
-10.66221 8.1213894 1.1211959 26.717266
-10.359539 8.3430443 1.1511948 42.02507
-10.159735 8.3839455 1.0574303 58.160564
-7.2776346 8.1342297 1.1397088 24.879477
-7.0857434 8.1659584 1.1037065 31.821739
-6.8353519 8.148737 0.99419302 37.127449
0.77670074 8.3072968 1.1364125 41.214897
1.1293535 8.2760448 1.1293157 48.776379
1.4148843 8.3059902 1.0655291 2.8312566
2.523351 8.129487 1.0813066 14.666667
3.5788949 8.3105602 1.1248217 26.050051
3.6152413 8.1398821 1.1703007 39.119297
8.9521027 8.258934 1.0177193 38
9.1554108 8.263032 0.98284805 34.115234
9.4783754 8.2324924 0.99388099 17.614788
-10.274048 8.4493465 1.0279195 52.351627
-10.103222 8.4975414 1.0481064 31.741425
-9.8697529 8.5997219 1.097169 57.206551
-6.7385492 8.4333515 1.1506088 7.2301455
0.75145888 8.4583359 1.0701108 31.45789
2.2653582 8.4898787 1.1794075 2.3333333
3.5546398 8.4689426 1.1105205 6.9425888
3.6441026 8.4503994 1.1125154 10.429688
8.9344234 8.4663239 0.98200929 20.25
-9.8832245 8.8081207 1.0501745 55.48193
-3.104779 8.8810196 1.1700368 1.1567447
-2.9585488 8.8977232 1.1957707 1
-2.2407012 8.9256477 1.0699556 1.1354177
-1.9605715 8.9096909 1.1840641 5.75
-1.5547038 8.8946095 1.134075 31.870533
-1.293961 8.9160328 1.1136178 33.355625
-1.0334067 8.9225864 1.1448635 36.77681
-0.80695438 8.8945332 1.0408695 21.303513
0.59784675 8.8339758 1.1857619 1
0.65031034 8.8383102 1.1484187 3.2505891
8.8565159 8.8282375 0.97443855 38
-9.9014549 9.0499687 1.1151271 21
-9.8886299 9.1133957 1.1423805 56.343254
-3.183666 9.2898474 1.0470684 1.0009766
-2.4718456 9.1471386 1.1821253 1
-2.1963444 9.0967789 1.0615168 2.6466298
-1.5905567 9.0954628 1.0653069 2.1367188
2.2661812 9.2173977 1.0048921 15.5
-9.8544559 9.3844404 1.1499698 54.461739
-3.1931658 9.3570385 1.0450166 0.87565106
-2.8491523 9.3728256 1.1920333 1
-2.555131 9.401619 1.1923416 1
-2.182188 9.3585358 1.0278933 1
-0.33998558 9.5730629 1.0898128 3.5426459
-0.076797195 9.5084801 1.1621332 3.7647409
0.0033691456 9.5404377 0.98082316 3.1875
2.197412 9.5240507 1.0632496 3.125
9.1215267 9.5771542 1.0899851 13.5
-9.8763142 9.6867056 1.0927422 57.693977
-0.34865463 9.6362591 1.0850592 2.1247683
-0.21570289 9.6965332 1.0435896 5.3048577
0.045961708 9.7547512 1.035157 1.8447918
-9.8699036 10.164701 1.1361474 43.617584
-0.31480855 9.93396 1.0221936 1
-0.076709531 10.002132 1.0172694 1.7058719
0.17721939 10.086475 1.038413 3.1991765
0.30763984 10.194794 1.0678757 2.6770833
2.2255259 10.08157 1.0891404 6
9.0004301 10.017955 1.1664866 35
-9.9054165 10.354303 1.1396024 45.5
-9.8626022 10.28021 1.0375582 51.843025
-0.16228339 10.243166 1.0343144 1.0703125
0.27113536 10.213457 1.1107401 7.3669729
0.32263726 10.240883 1.1011767 4.7728515
2.3288162 10.367134 1.0603926 8.75
-9.8804417 10.650993 0.99927539 44.070343
2.2803268 10.567386 1.0741677 20.333334
-9.9280062 11.047479 1.1698579 20.598959
-9.8685646 10.928322 1.0164816 47.511536
2.2839656 10.857647 1.1003242 2
2.4911671 10.957476 0.9943136 29.25
-9.9122572 11.249844 1.1354841 36.398438
-9.8744936 11.220484 0.99640393 37.915821
-3.9450622 11.390284 0.97355372 13
-2.9331563 11.290565 1.0877957 5
2.4667928 11.250566 1.1758649 1.5
-9.9075756 11.550152 1.0804404 24.373737
-9.8904305 11.616393 1.1459203 25.373892
2.6118529 11.622734 1.1104147 4
4.3833237 11.575459 0.93923134 5.9375
4.6674948 11.60073 1.045141 7.4404726
4.8729296 11.575769 0.94966567 11.067144
5.2119427 11.599944 1.0873797 7.1227479
5.5251527 11.581397 1.1223463 9.0230846
5.8178549 11.557883 1.0783027 13.963869
6.128149 11.565943 1.1401064 8.5390625
-9.8727112 11.773397 1.0280825 13.28796
2.5724492 11.795511 1.0400463 6.25
4.509726 11.725022 0.9997372 3
-9.8566189 12.216764 1.1518468 16.952393
2.6341677 12.258866 1.0821159 21.75
2.7621675 12.070713 1.00603 35
-9.9114342 12.351464 1.0856342 15
-9.8666325 12.40486 1.0698466 18.282429
-2.4674947 12.472368 0.93749869 2.2770996
-2.2622986 12.476019 0.96310675 12.807559
-2.0623183 12.556678 1.0043887 5.4430122
-1.7213253 12.453417 0.93303502 15.40625
-9.9034777 12.814556 0.93276018 23
-9.8813381 12.787043 1.070461 16.2264
-2.1817474 12.626423 1.0383646 1.2521973
-2.0827131 12.626594 1.0699563 1
6.786469 12.870896 0.93964869 36
-9.9067631 13.152653 1.0134947 11.25
-9.8566265 13.087088 1.1204307 13.5
2.8637512 12.913797 1.0871452 1
6.811717 12.970762 0.98099041 19
-9.9185696 13.293712 1.0882738 10.75
-9.8815718 13.297985 1.0735463 12.5
-9.9230413 13.728489 1.0484878 12.75
-9.8809795 13.646847 1.142338 12.53125
2.6411605 13.79767 1.0178076 48
2.7003443 13.588856 1.1793565 1
4.4762416 13.794435 0.95466614 5.578125
4.5466661 13.792065 0.94024819 4.0910645
4.8989897 13.790729 1.0746135 26.4375
5.2515583 13.786365 1.0044184 7
5.642303 13.787661 0.94886178 18.375
5.7695513 13.784906 1.042393 7.75
6.5674682 13.798093 1.1435192 11
6.7764559 13.789464 0.99656808 42
7.0675149 13.774825 1.1886435 58
-9.9108868 13.864902 1.0370823 12.121391
-9.8868999 14.050547 1.0876946 9
-7.271924 14.091601 1.0688696 113.625
-7.0650659 14.089912 1.1068244 88.289062
2.8360851 13.983961 0.98393476 5
4.4191141 13.901691 1.0198522 6.8527875
4.5680561 13.883959 1.0146155 12.487731
4.9942932 13.847115 0.9908402 23.350828
5.1441288 13.866846 0.99237466 16.421757
5.6205864 13.816927 0.98075444 23.004219
5.8824096 13.820408 1.134891 22.366438
6.1124487 13.81863 1.1129563 20.28125
6.4213214 13.812398 1.0824552 34.5
6.7664843 13.828542 1.0737501 42
7.0069008 13.811491 1.1616679 38
-9.9274235 14.241223 1.1628758 14.472194
-9.8659477 14.343533 0.98159742 5.041862
-7.5287657 14.195845 1.0830153 9.8265381
-7.39217 14.146502 1.0352416 44.088242
-7.006094 14.171964 1.0339385 36.80481
-6.7730937 14.350058 1.0178785 43.505032
0.5918774 14.316442 0.95610136 16.78125
0.82237804 14.285144 1.0369701 27.353287
0.97299516 14.261175 1.053617 46.844757
1.2736181 14.289958 1.0658687 23.613878
2.8670557 14.264728 0.98720956 2
17.571098 14.385174 0.95089132 10
25.768778 14.399969 0.98926312 11
-9.9176273 14.438891 1.0350921 8.6953125
-9.8399391 14.481293 1.0857811 5.4946289
-6.7003222 14.481026 1.0484483 3.3499222
16.998104 14.493273 0.95488524 15.5
17.542206 14.461374 1.0072119 8
24.852095 14.680976 1.114628 32
25.10784 14.578903 1.1317583 23.320965
25.442177 14.59562 1.1472273 24.488281
25.593218 14.53249 1.0783458 22.267033
25.841644 14.412865 1.0922122 9.5
33.236526 14.653236 1.1253347 25.5
33.452667 14.590881 1.1225625 17
33.611465 14.577698 1.198752 14
24.866325 14.901815 1.0060532 30
24.970371 14.883598 0.95138872 48.210739
33.174713 14.822306 1.1404283 33.5
16.846251 15.244324 0.96833473 7
24.975494 15.068722 1.0104843 33.209431
33.081108 15.089097 1.1112735 30.96875
24.950275 15.381049 1.0682337 8.5
33.051537 15.397213 1.1582024 13.734375
4.1715298 15.871165 1.0641631 6.5
4.4136715 15.738543 1.1360077 35.5
4.7170706 15.755835 1.0310584 10.75
4.9091916 15.630635 1.156279 23
5.3739371 15.745367 0.93268484 10
-10.872644 16.143642 1.0417135 24.739746
-10.587112 16.178873 1.0720428 13.875
-10.268379 16.065546 1.0233778 3.4209437
-10.022141 16.08744 0.97456753 5.1752596
-9.8227396 16.144724 1.0023172 10.039563
-9.5621595 16.105143 0.93773389 4.75
3.5262783 16.129595 1.0335596 44
3.72911 16.006697 1.1445707 8
3.9428489 15.933506 1.0103118 22
4.3673801 15.912947 0.90186888 51
-10.883618 16.318596 1.1551745 24.065235
-10.67521 16.376295 1.074261 9.2391405
-10.305265 16.280846 1.0686212 4.8219481
-9.9859495 16.256889 1.1057409 3.4873047
-9.8292961 16.256557 1.0002702 6.1669922
3.8949404 16.217047 0.94851339 3
3.9914818 16.438654 1.0628449 15
4.2850356 16.279371 0.92737317 14
-10.868166 16.643974 1.1633201 8.8337669
-10.766325 16.597763 1.1018819 16.375
-10.867932 16.924225 1.1771911 13
-10.901665 17.354904 1.094723 10.326172
1.7624849 17.298622 0.97830367 47
1.80038 17.165083 0.95312387 13
-10.930324 17.584248 1.1389154 4.75
-7.5465326 17.66111 0.94431865 26.362183
-7.4495049 17.673603 0.92930192 55.640369
-7.1720567 17.693235 0.92086786 93.14286
-6.6603441 17.697094 1.0798929 110.5625
-6.5059586 17.694578 1.1533225 144.375
-6.2561865 17.690392 0.94187367 99.5
33.018669 17.666338 0.98962748 13
-10.944163 17.773531 1.0958322 5.4892578
-7.5724297 17.762699 1.0851094 37.36087
-7.325808 17.758001 1.1428378 68.536713
-7.0223083 17.751228 1.008593 73.91922
-6.7738323 17.765541 1.1419288 70.840927
-6.3557444 17.760101 1.0036083 60.078232
-6.0855961 17.753662 1.0371131 80.269112
-5.9383392 17.775135 1.0626104 77.096703
-5.6672573 17.948071 1.0384073 11.163663
-4.612246 17.957523 0.96450692 5
-4.4172201 17.948759 0.97898775 5
-0.35157877 17.877632 1.0342518 46.371155
-0.19736445 17.840839 1.1618454 84.087013
0.17052874 17.835049 1.1176393 89.033218
0.50054508 17.857697 1.05858 84.267548
0.64757574 17.889584 0.94737482 41.215492
0.93150371 17.946009 1.1905785 4
1.8897995 17.838142 1.0024376 52.5
2.2367108 17.98987 1.1563559 89.033333
2.5630064 17.954861 1.0551331 67.625
2.84725 17.914433 0.98821622 112.1778
3.0828223 17.910877 1.0907576 115.189
3.4486511 17.913872 1.0925144 119.4263
3.8121395 17.967319 1.1165555 128.1105
4.0792904 17.985424 1.1262693 135.09531
4.3749361 17.963572 0.96944141 115.97528
4.743041 17.951836 0.99993253 128.19887
5.0046434 17.978069 0.96602988 122.79277
5.1605396 17.990688 1.0291355 120.56389
5.4843898 17.991873 1.0863926 129.33026
5.9516993 17.978815 1.0173745 121.30688
6.0861845 17.962097 1.064811 63.737251
6.353528 17.958141 1.1384033 10
31.985428 17.967808 1.021162 36.75
32.13224 17.809975 1.09817 14.75
32.847763 17.859928 1.1428514 22.375
33.017574 17.762907 1.1035731 16
-10.882742 18.092901 1.0871608 10.599284
-5.7244034 18.029373 1.1800966 3
-5.636425 18.023819 1.1170526 3.0373535
2.0491276 18.065571 1.1217022 99.200485
2.1427498 18.054375 1.1380382 110.82639
2.454349 18.01576 1.1863825 12
2.9778993 18.027529 1.1887819 4
3.5508137 18.010017 1.1448363 3
3.8315663 18.006638 1.0018202 26.5
4.1488934 18.004807 1.0138239 115.5
4.3296394 18.003689 1.0519462 61
4.7684898 18.006527 1.03597 114.03906
4.9604611 18.00555 1.0325723 127.93066
5.2665262 18.003716 1.0687909 117.01215
5.6205854 18.002903 1.0284069 97.78125
5.771204 18.018391 1.1095123 84.375
6.0966578 18.028463 1.020927 4.0794525
22.361498 18.170151 1.0397146 31
23.207661 18.161514 1.0937159 19
23.497494 18.188484 1.0179428 32.5
23.940191 18.21534 0.93964434 26
24.16857 18.161728 0.99948239 17.203125
24.525543 18.138271 0.93150204 12.5
24.623199 18.174845 1.1170484 14
25.135517 18.148991 1.0472902 31.59375
25.461384 18.178055 1.0172668 30.46875
25.638699 18.185637 1.0046493 23.5625
25.894779 18.264668 1.0290827 18.375
26.204945 18.220474 1.0384545 25.625
26.65308 18.236374 1.099998 26.464844
26.775873 18.270298 0.94164813 19.238281
27.081299 18.255646 0.97807372 20.375
27.540298 18.200409 1.0640745 29.921875
27.724171 18.203651 0.98221505 23.15625
28.079514 18.235542 1.1520238 35.25
28.29377 18.224325 1.0129113 32.765625
28.683403 18.227421 0.97084749 17.5
31.660679 18.298227 1.051506 20.25
31.927126 18.055706 1.150008 42.4375
32.875961 18.075884 1.043921 37
-10.917728 18.483459 1.1253457 12.46875
24.33769 18.315491 1.1344904 5
25.894203 18.335321 0.96221387 10
26.323811 18.369934 1.1120818 11.5
27.148251 18.305265 1.1194254 26
28.046309 18.338327 1.1375891 32
28.602863 18.300716 1.1408733 28
31.579594 18.364922 1.0203199 14.5
-10.956293 18.659948 1.1500337 17.472237
-10.898837 18.993605 1.1588733 15.161362
-10.918342 19.287119 1.1741927 24.605034
-10.93553 19.692165 1.0910168 29.173359
-10.91247 20.000881 1.0956342 16.53393
8.3355932 19.950314 1.1048909 8
-10.998043 20.251602 1.0311528 11.782488
7.8805919 20.118683 1.1850795 6
-10.948882 20.610313 0.97627854 20.450991
-10.996638 20.850048 0.98711038 17.1875
-10.964546 21.107227 1.0383856 15.5
-10.995634 21.693399 1.1485438 17
-10.998475 22.190029 0.95920247 11
-11.036458 22.423227 0.99448794 15
-10.984842 22.681822 1.0895637 19
-10.906708 23.124559 0.96819812 8
-11.028717 23.429691 0.99305832 11
-10.984184 23.838243 0.96231425 18
-10.999546 24.183636 1.0263953 21.653646
-10.845869 24.339703 1.0974758 32.076389
-10.724932 24.432289 1.0515795 25.625
-10.223069 -28.878786 1.2320338 10
-10.266273 -27.880842 1.29338 10
-10.211446 -27.22718 1.2440596 17
-10.25839 -26.865324 1.4202541 16.5
-10.265337 -26.572456 1.399151 10
-10.280101 -26.150846 1.2901818 11
-10.317585 -25.326246 1.3876362 15.666667
-10.320485 -24.630251 1.2526489 25
-10.314184 -24.519089 1.3118627 14.75
-10.345954 -24.198786 1.3310735 23
-10.270577 -23.864452 1.4084504 17.333334
-10.550479 -23.533611 1.4409934 2
-10.306054 -23.615562 1.315761 14.875
-10.355565 -23.258308 1.3709741 18.5
-10.456037 -22.905682 1.2990917 2.890625
-10.421822 -22.674759 1.2944443 2.5338542
-5.929677 -22.515602 1.4101052 4
-8.3924742 -22.416786 1.4684873 2
-7.1197367 -22.445871 1.4699492 2
-6.2075171 -22.402134 1.3805783 33
-5.8681622 -22.417252 1.4230962 62.859375
-5.4759145 -22.40584 1.4309833 67
-5.1514411 -22.448715 1.3343887 37.273438
-4.9148889 -22.415169 1.3933254 67.25
-10.073047 -21.935585 1.2577289 2
-10.389885 -21.662415 1.3420992 2.625
-9.9666433 -21.767834 1.3663218 18.090031
-9.892457 -21.7654 1.4922041 9
-6.9969101 -21.614595 1.4093748 4
-6.8619757 -21.610775 1.2380354 4
9.232296 -21.770775 1.3711746 6
-10.273924 -21.507357 1.3594702 25.595972
-10.145275 -21.56632 1.3145533 45.833332
-7.2149878 -21.56324 1.3139507 19.90625
-7.0886326 -21.537781 1.2889076 18.695312
-6.6414385 -21.524746 1.3412948 16.645834
-6.4262433 -21.554981 1.3730068 26.575317
-6.2650557 -21.566746 1.3714427 10
1.4145302 -21.446518 1.2515132 1.9999808
1.5500581 -21.444672 1.398109 2
9.2154903 -21.439686 1.3982569 5.5
-10.354927 -21.082977 1.3191135 19.069647
9.261672 -21.233261 1.3699526 6.75
9.3628922 -21.259821 1.2153472 6
-10.524746 -20.839703 1.420688 2
-10.321765 -20.83884 1.4025993 20.209709
9.2245445 -20.864382 1.3284683 7.5625
-10.342474 -20.625774 1.3255638 26.375805
9.2241344 -20.529774 1.289115 6.5
9.4498739 -20.42041 1.2689114 4
-10.353132 -20.263189 1.273928 27.026367
-6.0730457 -20.133057 1.2060115 4
-5.8316293 -20.135628 1.2195904 4.375
-5.5436926 -20.198622 1.2236469 3
-5.3211622 -20.228634 1.2088349 4
9.2205162 -20.33852 1.2727375 7.1597223
-10.327929 -19.90237 1.3284961 23.37384
-6.3688002 -20.024361 1.2245891 2.5
9.2409315 -20.000368 1.3327087 4.375
9.3153086 -19.826294 1.2456851 2
-10.304484 -19.629791 1.4106567 23.6073
9.2510958 -19.718418 1.3278408 3.75
9.3379011 -19.544641 1.385709 4
-10.34901 -19.336716 1.2833916 21.563255
9.2947102 -19.342213 1.3650208 6.6113281
9.332737 -19.435984 1.2750316 9.333334
-10.365002 -19.0061 1.2810379 29.468214
-6.9249148 -19.012833 1.2473898 1.25
-6.8902631 -19.046131 1.3600206 1
1.5216804 -19.068394 1.2194371 1.5
9.2669315 -19.026468 1.3025709 4.8007812
9.3304176 -18.982395 1.478384 5.75
-10.356676 -18.693209 1.3458557 21.851456
1.5358727 -18.861259 1.2230031 1.5
9.2725945 -18.750187 1.2380223 4.21875
9.3592644 -18.611549 1.4345475 4
-10.341814 -18.482706 1.3095388 26.291092
1.5326421 -18.583693 1.4945126 3
9.2576542 -18.410404 1.2560859 2.7426758
9.316041 -18.480204 1.2623754 7.6666665
-10.506569 -18.195398 1.3777822 10
-10.333731 -18.223995 1.3494146 23.545139
1.4894211 -18.1684 1.4880712 6
1.538588 -18.254795 1.2224466 1
9.2595539 -18.133215 1.3302574 2.0328774
-10.378704 -17.917793 1.3959568 24.363041
-6.3338671 -17.732876 1.219016 2.5
9.2317114 -17.752743 1.4608722 5
9.3231754 -17.802713 1.4697919 3
-10.357141 -17.508217 1.2458341 18.356319
1.4617865 -17.525597 1.4467891 2
9.2646952 -17.484917 1.4918752 7.25
9.3159142 -17.503559 1.3809981 4.5
-10.351089 -17.142101 1.4506116 13.75944
9.2787304 -17.261841 1.3852634 4.0874023
-10.509809 -16.834503 1.2205665 13
-10.319214 -17.03223 1.4617789 10.063807
9.259057 -16.986885 1.4497156 10.416666
9.3246593 -17.045658 1.3274376 3
-10.513056 -16.672562 1.2238071 7
-10.364708 -16.618956 1.3796678 25.18264
-7.0415592 -16.53603 1.4441285 1.125
-10.533973 -16.362383 1.3568639 1
-10.361137 -16.275635 1.3479972 22.847004
-7.0170665 -16.480331 1.4426616 1
-10.512533 -16.010069 1.468102 2.5
-10.366335 -16.136745 1.4457538 10.107715
-10.544101 -15.839251 1.2881658 4
-10.39085 -15.875168 1.2894893 23.622723
-0.17179605 -15.79073 1.3233342 1
-10.258932 -15.517866 1.3044047 30.708332
-9.9569111 -15.366999 1.3899326 5.8491974
-7.2715759 -15.381779 1.3569429 6.4494619
-7.1329951 -15.327628 1.3337646 60.901043
-6.4656997 -15.318781 1.3190846 6
-10.582958 -15.044933 1.4496826 2.2416992
-10.324221 -15.010098 1.4632984 26.966652
-10.151035 -15.027281 1.4704762 45.220238
-7.2666602 -15.280088 1.3420548 10.11839
-7.0505104 -15.158959 1.3819163 55.330734
-6.6809011 -15.012669 1.2404742 36.519943
-6.3179836 -15.063955 1.3223515 4.0321159
-6.2652264 -15.035816 1.2711968 3.8958333
-5.712635 -15.013568 1.257937 4.5093751
-5.5744362 -15.051725 1.2646451 2.0963378
-4.9391646 -15.027027 1.3352184 2.7195978
-1.8718674 -15.008938 1.2815375 2.0541992
-1.7335565 -15.025829 1.2471104 1.9791119
-1.3625054 -15.050619 1.2356482 1.5719671
-1.0566683 -15.032137 1.27671 2.0377696
-0.65909851 -15.065525 1.2462924 1.5894191
-0.56023175 -15.075369 1.2756796 5.147305
-0.23994493 -15.061289 1.2621946 1.3756961
0.0087349964 -15.058344 1.3611598 2.0229492
2.9949553 -15.014089 1.283522 53
3.2756894 -15.119127 1.2951307 26.1745
3.3464503 -15.118162 1.383425 36.169128
3.6617959 -15.018583 1.2440822 46.323853
4.037704 -15.021095 1.2951492 61.937473
4.3227091 -15.019385 1.2845234 35.756516
4.7832661 -15.012915 1.3280864 53.465172
5.0458994 -15.062643 1.3886032 10.402187
5.13799 -15.024721 1.3295224 7.5526462
5.6279144 -15.038118 1.4433107 2
5.8126202 -15.02005 1.4691918 1.75
6.0712261 -15.016593 1.4575286 2
6.8901329 -15.0878 1.4399157 3.7083216
7.1823826 -15.017241 1.2533252 59.513561
7.3313308 -15.025412 1.3548548 50.017975
7.731493 -15.028248 1.2222421 12.9375
7.8874884 -15.031898 1.3066113 5.9375
8.3515272 -15.074137 1.298425 3.4621613
8.4915867 -15.072324 1.3515716 2.8195395
8.7155361 -15.033467 1.4317486 4.234375
13.844764 -15.022524 1.416598 6
14.210033 -15.023058 1.3425591 40.050781
14.552046 -15.015529 1.4847355 19
-10.562884 -14.974038 1.4234824 1.6648118
-10.353425 -14.9652 1.4587084 31.734934
-10.176451 -14.990664 1.4178274 48.609375
-6.9439864 -14.981584 1.3543237 36.16769
-6.702755 -14.909304 1.2860782 51.266064
-6.5266314 -14.933428 1.2886562 49.508125
-6.1052098 -14.996142 1.2035923 2
-5.7053771 -14.96352 1.3025 1
-5.6017127 -14.973513 1.2599905 2.75
-4.8633585 -14.923728 1.2951999 20.046568
-4.5848842 -14.888966 1.2519133 52.141106
-4.2423124 -14.87797 1.2751195 57.376991
-3.9220548 -14.880276 1.3454329 57.091858
-3.8862152 -14.875711 1.3028488 55.470856
-3.4586792 -14.886129 1.2727878 57.06881
-3.1918006 -14.883575 1.344443 55.247662
-2.7913725 -14.884354 1.2569083 59.868656
-2.4322777 -14.883842 1.2393183 61.97509
-2.2859302 -14.884129 1.2354357 54.579792
-2.0014222 -14.889561 1.2310771 43.78014
-1.7518872 -14.981512 1.244072 8.7622166
-1.2592688 -14.988212 1.2850852 1.9207555
-1.0540004 -14.976825 1.2268033 3.5947113
-0.84066248 -14.982725 1.2390296 4.8919296
-0.37597615 -14.977028 1.3985522 6.0591917
-0.072647586 -14.967113 1.2553554 7.8354368
0.18662214 -14.91433 1.2266704 58.727913
0.44758224 -14.852025 1.2838604 73.025772
0.81084031 -14.830719 1.238142 64.516907
1.1537063 -14.842634 1.2946498 17.560755
1.2166162 -14.867205 1.3127272 9.9396648
1.6189208 -14.803928 1.2514228 58.76157
2.0264022 -14.946198 1.3576802 68.728119
2.3130507 -14.96517 1.2722207 64.99575
2.5794551 -14.956964 1.3995818 8.9783115
2.9177647 -14.928945 1.2916899 36.259087
3.0471106 -14.934713 1.3033996 31.257477
3.4955072 -14.98562 1.3172061 47.184536
3.6942866 -14.949804 1.4647086 13.003805
4.0132942 -14.989253 1.3974463 49.119877
4.3221464 -14.993452 1.3909765 40.866631
4.7331491 -14.994745 1.3015397 55.377998
4.9696846 -14.984241 1.3068945 54.35318
5.3141599 -14.908867 1.399174 2.0424356
5.5746183 -14.952197 1.4307854 1.9863278
5.9293561 -14.965273 1.4611627 2
6.2262173 -14.950082 1.4701269 2.0000803
6.3797035 -14.95104 1.421921 1.8773074
6.8124647 -14.965216 1.3861611 4.5513582
7.0374122 -14.96517 1.2351197 59.800926
7.3919182 -14.978885 1.3713847 53.467659
7.5732059 -14.973652 1.4111091 13.901482
7.8931293 -14.953743 1.2833772 74.529633
8.228735 -14.979393 1.4279768 61.745079
8.6568737 -14.993789 1.3883059 11.733507
8.7273808 -14.945377 1.4551051 7.6464982
9.2247114 -14.712341 1.32919 43.446316
9.4727306 -14.729638 1.3419342 23.681641
9.7004471 -14.720397 1.3162233 28.354168
10.020781 -14.775511 1.4330125 17.625
10.583884 -14.84844 1.340694 22.5
13.792956 -14.947395 1.3049514 31.985352
13.99159 -14.906508 1.3742807 49.073555
14.296913 -14.884092 1.3598495 24.011414
14.514788 -14.899283 1.3959295 15.12488
14.802592 -14.913711 1.4433866 41.479908
15.214729 -14.928768 1.4474585 40.284744
15.432451 -14.912085 1.4459486 39.983906
15.709276 -14.898876 1.4577802 23.807514
16.035961 -14.916809 1.4566259 25.530968
16.344181 -14.870481 1.4809837 37.711685
16.606819 -14.873511 1.4741666 31.975098
17.047092 -14.910399 1.4271262 10.25
17.192755 -14.769529 1.4364316 22.020834
18.67786 -14.859161 1.3972654 25.9375
19.015152 -14.904598 1.2193179 7.25
19.372921 -14.895139 1.2452347 7.497396
19.642742 -14.901869 1.2098843 8.1298828
19.982138 -14.88657 1.2222652 12.72168
20.493816 -14.82774 1.2480849 19.5625
20.828274 -14.790304 1.244904 19.3125
21.053452 -14.824821 1.2360824 16.8125
21.819939 -14.841533 1.3191803 26.916666
22.095001 -14.769297 1.3139935 20.1875
22.404238 -14.782009 1.3275802 15
22.722658 -14.801829 1.28741 11.625
22.892132 -14.72123 1.2722868 10.583333
23.32552 -14.715612 1.3639038 8.75
23.658228 -14.746575 1.2001936 21
24.135775 -14.733406 1.3258934 25.125
24.323984 -14.70878 1.3706584 42.75
26.905512 -14.785767 1.430989 9.1542969
27.141392 -14.788602 1.3321357 12.382487
27.407059 -14.78249 1.2782484 9.279068
27.843012 -14.839745 1.3663144 9.265625
28.066069 -14.771995 1.4088761 10.477993
28.367569 -14.751202 1.3231566 10.23716
28.526672 -14.755822 1.2946962 13.574707
28.969219 -14.763932 1.3099823 11.515503
29.235001 -14.785295 1.3420122 11.406578
29.619415 -14.770153 1.3488511 13.943667
29.820969 -14.704755 1.3272053 10
30.253857 -14.750937 1.3011353 10.235515
30.429256 -14.735644 1.4474943 10.773895
30.676571 -14.743761 1.4332361 12.474945
31.029457 -14.715697 1.3755128 13.125
31.269541 -14.757623 1.4068677 11.121094
31.575405 -14.736152 1.4132174 10.75
33.309765 -14.702558 1.3378179 14
8.8791599 -14.668704 1.3852546 46.9375
9.0806751 -14.691423 1.3459156 48.5
17.328667 -14.657127 1.4649944 44.265625
17.432739 -14.659218 1.4553621 32.5
17.890598 -14.598527 1.4416808 40.041664
22.247293 -14.699702 1.3698088 16
23.005711 -14.677938 1.3143871 14.25
23.262741 -14.637387 1.3320338 8.625
23.672029 -14.67586 1.4205621 16.5
23.779894 -14.673296 1.2489719 17.875
24.478329 -14.549971 1.2547102 19.786459
24.671755 -14.504551 1.3996553 13.84375
24.955154 -14.601083 1.3765068 17.125
25.431946 -14.574924 1.3746154 16.875
25.587269 -14.563899 1.4109344 19.84375
25.996799 -14.561153 1.3420354 21.808638
26.148853 -14.496206 1.3698921 23.695557
27.05191 -14.699165 1.4982231 22
27.496773 -14.672937 1.3266075 9
27.658291 -14.691128 1.4104021 8
28.008766 -14.665519 1.2410531 8
28.433979 -14.689011 1.4063225 12.453125
28.595419 -14.680374 1.3553306 10.353638
28.894978 -14.662299 1.3516774 10.75
29.199221 -14.668489 1.3567142 12.5
29.668694 -14.619717 1.3974122 9.484375
29.718218 -14.655854 1.3057458 10.875
30.454803 -14.67459 1.4821491 14
30.829014 -14.647757 1.381979 13.66333
31.00152 -14.653036 1.2809509 13.121094
31.360889 -14.675756 1.2964773 12
31.57069 -14.661769 1.2645601 16.25
31.921247 -14.657071 1.3848221 12.068359
32.241203 -14.573223 1.3679631 12.402344
32.518234 -14.598051 1.3060329 13.735678
32.865025 -14.599192 1.4228655 14.75
33.087986 -14.644186 1.4136217 16.235678
33.428211 -14.515913 1.3573754 32.416668
33.728889 -14.453255 1.4202813 21
34.69146 -14.538879 1.4755644 12
35.026932 -14.530062 1.4394794 14
35.175346 -14.514306 1.4488529 12
26.2187 -14.352133 1.41617 8.5
0.87613475 -13.559345 1.3694695 1.75
0.98156381 -13.551371 1.3595455 1.1778625
9.0844908 -13.564247 1.4736626 2
12.226841 -13.515425 1.2163306 3.5
0.88967979 -13.456511 1.2697618 15
1.0226357 -13.26953 1.2706558 2.9393773
12.287355 -13.497351 1.226891 4
22.463867 -13.401199 1.2385821 6
22.514565 -13.447928 1.2839645 6
23.238747 -13.421223 1.2438008 6
23.663368 -13.457546 1.2274948 5.5
23.744503 -13.391462 1.2655928 6.5
24.169132 -13.384417 1.2482471 7.8125
24.361883 -13.380921 1.2057967 6
24.744871 -13.375319 1.2227354 5.5
25.026691 -13.412403 1.23724 6.5
1.1064163 -12.999798 1.3069909 1.661433
1.3788203 -12.945807 1.3494701 28.693254
1.6329458 -12.940799 1.2927592 19.00593
1.1260896 -12.894509 1.3271899 45.161457
1.4261861 -12.898115 1.4068234 44.98074
1.6260343 -12.89769 1.3845448 31.879171
5.0772572 -12.45915 1.21561 2.375
5.3556504 -12.393578 1.2274654 23.007502
5.5582037 -12.403728 1.3604333 16.626352
5.8365278 -12.394188 1.4156213 15.999607
6.0809088 -12.386843 1.4093645 19.657528
6.3349247 -12.390663 1.3916264 13.141602
6.7804122 -12.406389 1.2848642 5.8591814
7.0127535 -12.35957 1.2656219 38.508247
7.4452143 -12.389753 1.3560402 31.73513
7.5849743 -12.336899 1.3982489 41.523579
7.8427553 -12.391391 1.4832034 16.25
7.1583023 -12.126161 1.2329385 19.666668
7.3354707 -12.112844 1.2618916 34.655853
7.5887647 -12.164028 1.3380727 13.674047
7.8944798 -12.231262 1.484133 31.851562
11.969938 -12.187811 1.4930191 2
7.3525524 -11.774233 1.2282145 27.672295
7.7160883 -11.791103 1.3863075 34.30994
7.8129296 -11.73632 1.4624624 26.601616
11.911473 -11.766128 1.4428444 2
7.3422861 -11.50414 1.2159718 36.683598
7.7259574 -11.537772 1.4203174 33.010666
7.8737421 -11.476208 1.4923584 35.664146
11.847273 -11.487541 1.4641931 5
7.4649458 -11.348106 1.2877825 31.29213
7.6623383 -11.372057 1.3853443 34.969982
7.831439 -11.318865 1.4807746 33.09375
11.884095 -11.272217 1.4877589 3.25
7.4066186 -10.819305 1.2436695 34.861015
7.6824217 -10.816765 1.3891194 37.867615
7.8280177 -10.90461 1.4370244 3
11.870601 -10.900395 1.4344016 7.8333335
-6.0818357 -10.549202 1.3435373 4.0080705
-5.852766 -10.630754 1.3055375 2.6100032
-5.6817427 -10.63514 1.3671093 2
7.403698 -10.633726 1.261059 34.74231
7.6667128 -10.55966 1.3995392 30.350506
7.8547935 -10.629414 1.4931262 31.638184
11.914045 -10.65647 1.453145 2.15625
-6.0828304 -10.306835 1.3483875 4.3104763
-5.8367271 -10.265787 1.3084739 8.0099964
5.3093648 -10.20466 1.2227923 1.0201824
5.4414988 -10.228945 1.2966371 1.0004883
5.8071237 -10.20647 1.4128282 2.0625
6.204875 -10.215425 1.2858479 0.875
6.5770898 -10.213352 1.2229443 1.5
6.7450008 -10.219526 1.2735834 1.9493408
7.1160135 -10.374042 1.2523372 22.126688
7.3558712 -10.446354 1.2688351 29.08246
7.6381912 -10.339886 1.441906 27.693441
7.915329 -10.405308 1.4674623 33.125
11.930983 -10.362865 1.420696 2.2265625
-6.0297651 -10.048113 1.4184122 5.4244723
-5.8182421 -10.089285 1.474086 1.7990514
5.3366723 -10.124802 1.2429432 23.529018
5.5876551 -10.13674 1.3557713 11.277304
5.8870916 -10.14778 1.3688061 8.6768007
6.1557798 -10.141304 1.4503716 9.0203953
6.5604153 -10.129657 1.2368844 20.919847
6.6626625 -10.141769 1.2417241 14.655697
7.0446701 -10.123955 1.3149698 20.263445
7.3776069 -10.056216 1.2885673 27.322052
7.7241893 -10.048122 1.2883821 30.210632
8.0105705 -10.037069 1.2997375 28.444548
8.2077217 -10.054524 1.3083298 30.843433
8.4786415 -10.0429 1.3344542 30.233219
8.7715025 -10.029655 1.4184135 28.267582
9.0758915 -9.9440403 1.3912145 28.318724
9.3690128 -9.9885616 1.3246114 6.3789062
11.913522 -9.9473648 1.4293529 2.125
-6.0271964 -9.6781349 1.3452418 1.6916161
-5.8095226 -9.6234474 1.4055426 2.5707278
8.9719315 -9.859026 1.4707879 38.5
9.0673647 -9.8470201 1.4522376 33.774647
9.3056612 -9.6273613 1.4313388 46.239384
11.908786 -9.6670771 1.4442204 2
-6.0508447 -9.4972153 1.38162 10.188289
-5.9112558 -9.5100384 1.3489275 5.671308
9.2703018 -9.4959393 1.3919845 55.634995
9.3050766 -9.5383339 1.4012872 55.574356
11.963291 -9.4783669 1.4158274 2
-6.0876675 -9.0443802 1.3565569 1.1510327
-5.9495797 -9.0764818 1.3653309 4.678009
9.2892752 -9.1536827 1.3873498 51.963284
9.3108044 -9.1549501 1.4413743 29.031145
11.89778 -9.0695753 1.4507555 4.5
-6.124372 -8.9971714 1.3458798 1.161597
-5.8554916 -8.9958401 1.4528233 1.4930013
9.276392 -8.9069309 1.4182038 64.877113
9.3048859 -8.8909235 1.4051955 52.061081
11.919039 -8.9341831 1.4307578 2.5
36.186073 -8.9339495 1.4915938 14
36.735558 -8.9013577 1.4575135 11
9.2769222 -8.5305729 1.4269338 62.849552
9.3122044 -8.628026 1.3714324 23.995831
11.924692 -8.4981022 1.4094964 5
31.035702 -8.4495335 1.4727156 17.718018
36.156609 -8.4780397 1.4312205 10
37.115574 -8.6488705 1.2473371 11
37.946007 -8.6313047 1.4171644 13
9.2682648 -8.2420874 1.4239173 61.797176
9.3137531 -8.2693977 1.2852235 47.148865
11.913586 -8.3072634 1.4421418 1.75
30.484055 -8.1062069 1.2409084 10.5
30.828901 -8.2780609 1.3114681 9.3046875
30.964123 -8.2824039 1.4534944 16.232088
37.12077 -8.3110237 1.382104 16
9.2351341 -7.865572 1.4228659 49.230522
9.3166599 -7.8673925 1.3412457 35.712021
11.869267 -7.9996343 1.4467344 2.09375
30.525032 -8.012207 1.2158458 21.152344
30.730204 -7.8670874 1.3775743 25.119057
30.9459 -7.9302859 1.4473233 21.25
-10.204895 -7.5882549 1.3352654 5.5933523
-10.141166 -7.5489902 1.3102903 8.3739891
-6.9335489 -7.7047906 1.3727407 8.710042
-6.6449962 -7.6322722 1.2291576 15.290139
-6.4573722 -7.509932 1.2714455 4.115057
0.8950727 -7.5682092 1.3255893 3.8506219
0.90723264 -7.525332 1.3631651 9.4577599
1.3785703 -7.5748682 1.3570697 11.410223
1.5090301 -7.5800653 1.2049669 3
8.9899502 -7.5751381 1.4887731 21.15625
9.1550694 -7.6514082 1.4011652 25.535
9.3404322 -7.7694864 1.2645769 22.576538
11.876296 -7.6695528 1.4320084 1.75
30.567753 -7.6797256 1.2607465 26.75
30.787247 -7.6694164 1.3748729 29.735474
30.914173 -7.7313643 1.4359994 18.82597
-10.209471 -7.2262878 1.2579684 31.883959
-10.137652 -7.3203812 1.3794792 31.076002
-6.4670553 -7.2732 1.2996683 64.076805
0.89181864 -7.3620033 1.2496443 21.67672
0.91623497 -7.4645681 1.4268196 16.899828
8.992384 -7.3211098 1.412519 45.655495
9.0330677 -7.3955803 1.3843863 56.097065
30.521675 -7.2298698 1.2823586 18.571188
30.627979 -7.378674 1.3795466 13.941631
31.013433 -7.4558535 1.4182469 11.5
-10.573506 -7.0306864 1.4242057 5.3404636
-10.224712 -7.1449556 1.4267864 28.6294
-10.176631 -7.1906481 1.2391076 35.977142
-7.2007217 -7.064074 1.4279916 0
-6.9986143 -6.9766388 1.3924354 23.383301
-6.7448883 -7.0214911 1.3057353 74.155731
-6.5519462 -7.127347 1.3474802 82.13501
0.89530611 -7.1109877 1.2634802 23.532223
1.0651537 -7.0041757 1.2314278 37.850967
1.4237297 -6.9338388 1.2410672 40.719757
1.5386992 -6.9339333 1.2725253 25.185749
8.9958115 -7.0230045 1.3303821 52.015045
9.0473328 -7.0847235 1.3779609 55.865845
30.541868 -7.1653738 1.3227975 21.62735
30.650343 -7.0884638 1.2883244 23.917795
31.019588 -7.0164552 1.3949144 25.055576
31.210085 -7.0497761 1.4313254 14.875
1.0038639 -6.8969893 1.4253159 35
1.4578217 -6.8948998 1.2955449 27.861454
1.5692096 -6.8837342 1.3641841 10.632812
8.9898405 -6.8567429 1.4219322 59.720703
9.0512714 -6.8446164 1.3943183 51.347549
9.3995504 -6.807435 1.3697283 44.05867
9.6542635 -6.7710896 1.4518964 17.424206
30.862654 -6.840188 1.2584084 16.941406
30.982258 -6.8607435 1.3656697 20.763916
31.259829 -6.6969023 1.4505694 12.839302
31.838482 -6.7359495 1.4512341 14.75
32.542618 -6.6575928 1.4452975 9.5
31.143091 -6.5663252 1.2267433 12.5
31.355927 -6.5658889 1.2381773 9.625
31.999208 -6.5859942 1.4904847 7
32.205734 -6.3431811 1.3640556 13
32.499302 -6.421 1.4758289 9.90625
32.308083 -6.0957675 1.3835772 10.681931
32.448616 -6.1430163 1.4232106 8.25
34.039688 -6.0754809 1.4651153 9
32.052803 -5.7692127 1.2678874 10.125
32.172791 -5.8055167 1.2533081 12.5
32.43961 -5.955317 1.3963178 9
31.980579 -5.599966 1.3132322 9.3535156
32.140121 -5.6374283 1.3031414 9.75
32.148701 -5.3044734 1.2217062 12
-10.833231 0.25161141 1.3752853 1
-10.532214 0.16611663 1.3132982 6.780416
-10.448467 0.20514503 1.3123732 20.523472
-7.2423925 0.28143549 1.3455069 18.462076
-7.0287113 0.21158476 1.2982898 51.43259
-6.8035564 0.24137673 1.2652378 70.456024
0.99407071 0.21990235 1.3387407 84.544075
1.2881362 0.28994459 1.2336383 12.25
-10.607844 0.30593896 1.3718061 1
-10.290682 0.39229107 1.2445201 40.179428
-7.2512465 0.31520498 1.2443378 19.317221
-7.0857697 0.30692506 1.3575027 15.25
-6.6619825 0.36272269 1.2480059 86.082985
-6.5865054 0.47920412 1.2613587 91.678665
0.894871 0.38298172 1.2967608 42.516262
0.90410584 0.37577665 1.3028762 47.243668
1.3659379 0.35349473 1.2881294 24.367657
1.518683 0.34782171 1.2611818 2.8208332
-10.382071 0.78814679 1.4125291 11.811002
-6.6564016 0.82278395 1.2633221 16.42429
-6.5808363 0.65276003 1.3079749 78.918549
0.79812741 0.60867578 1.3235881 5.4201155
-6.7860317 0.92020917 1.3182874 1.5
0.80100358 0.94865161 1.2881057 22.780867
-2.7119799 2.846282 1.325763 1.25
-2.5604692 2.7794495 1.4945669 1.3281312
-2.9140284 3.1381047 1.2903575 0.25
-2.4897203 3.1658194 1.3281178 8.6789038e-07
30.995913 3.1036587 1.2193497 6
-2.8423572 3.3277688 1.3541154 1.25
-2.5617111 3.3350227 1.4473013 1
25.189421 3.3212113 1.2037902 7
25.449314 3.5361352 1.2951888 8.71875
25.597607 3.473882 1.3033286 5
28.625639 3.5659981 1.2942345 7.5
30.783249 3.4611309 1.4358259 7
25.396072 3.7331138 1.2377386 11.24219
25.564495 3.6753378 1.3532543 8
28.596329 3.684943 1.3797014 10.675188
30.855801 3.6519022 1.2009277 12
25.399689 3.9349639 1.2403443 13.75
25.711384 4.0254345 1.2561781 9.6362305
25.890251 4.0556927 1.3489208 6
28.490181 3.9741769 1.3403342 10
28.587669 4.0016422 1.313858 8.84375
25.484705 4.4851379 1.2412407 23
25.582355 4.3821421 1.2580295 28.442131
25.814878 4.2580376 1.338026 10
25.372864 4.6418004 1.2253585 10.481201
25.602972 4.5762796 1.3764119 9.2704773
-2.7234662 4.902977 1.4940839 1
3.5977657 5.9714689 1.3604662 18
3.8669221 5.9253893 1.2287475 15.577448
4.1160927 5.9326248 1.3089325 13.971853
4.4188347 5.9348221 1.2447186 11.22751
4.5432024 5.9545994 1.3671505 7.2127123
4.8335276 5.9497695 1.3560894 11.937353
5.1572189 5.9442539 1.2650478 10.8074
5.5280514 5.9549813 1.3259069 6.9762063
5.8410654 5.9441686 1.2602298 11.180324
6.0307817 5.9695978 1.4237083 2
3.5980072 6.2753239 1.2859704 35.671875
3.6410654 6.0906968 1.2919954 28.934284
4.0678854 6.0208068 1.3965741 1
4.9180999 6.0086317 1.2716334 2.875
5.1959248 6.0160933 1.2812564 2.2666667
5.5548792 6.0153542 1.2383161 4.458333
5.8838453 6.0098467 1.284394 5.5999999
3.5917888 6.5294228 1.4145768 28.181499
3.6193075 6.5054865 1.2678939 36.005478
3.5884395 6.6354871 1.3458024 24.04932
3.6166501 6.6665268 1.357712 19.395374
3.7000513 7.0797071 1.2248149 5.5
3.961982 7.1725044 1.4326566 1.25
3.1187332 7.3903389 1.2118729 2
3.8339291 7.442059 1.2708027 14.916667
3.9609904 7.4242058 1.3933263 6.179728
2.8788249 7.6545396 1.2298647 2.4444444
3.5927653 7.7111149 1.3247029 23.401699
3.7727294 7.6173973 1.3597288 13.683352
3.9671052 7.5754147 1.3601513 4.9194641
4.2467122 7.7140021 1.2545451 1
-10.82725 8.0880775 1.3304744 19.083334
-10.640328 8.0816107 1.2856454 36.650131
-10.491961 8.0908327 1.2873309 56.3125
-7.2127018 8.0917702 1.2995024 71.5
-7.0272112 8.0909605 1.3675277 82.734375
3.5927811 7.8961611 1.2751132 31.974504
3.6067078 7.9539218 1.2539294 34.898621
4.4283428 7.839036 1.2416401 2
-10.839897 8.1449776 1.3316518 9.503521
-10.556505 8.1247854 1.2982894 31.586702
-10.443462 8.168745 1.32592 44.295677
-10.178607 8.3747873 1.2986356 49.5
-7.5149012 8.2571859 1.3781087 16
-7.262732 8.1538715 1.3110379 11.075977
-7.0256524 8.1692247 1.3260242 35.938774
-6.7762747 8.3252134 1.3457597 53.371857
0.56871486 8.3531799 1.4122283 26.021736
0.75901222 8.3349037 1.3293602 44.290016
1.1649035 8.2767296 1.3248188 44.893471
1.3580589 8.2816582 1.3918535 12.53415
3.5731952 8.2555704 1.3096424 30.613647
3.6155651 8.1445408 1.2599211 24.750252
8.8162498 8.3337173 1.4095262 55.779648
9.1108265 8.2511759 1.3363769 47.891972
9.4518967 8.2455826 1.4002225 24.585808
9.6086617 8.2789793 1.4184594 3.5
-10.560205 8.6726427 1.4793739 38
-10.350702 8.4304466 1.2612953 43.281261
-10.011049 8.4791365 1.2472489 34.924938
-9.8653679 8.6180706 1.2618542 44.030983
-6.7341032 8.4437761 1.3666828 1.068413
-6.5852671 8.4636431 1.3290261 3.5
0.54120791 8.4613323 1.4494535 4.5014172
0.73479187 8.4549389 1.2892582 32.612331
3.5564246 8.4112492 1.2945355 17.167145
3.6259029 8.4767437 1.3144851 11.729167
8.8188114 8.4796867 1.3464677 37.84375
-10.611927 8.8228626 1.4459867 33.229164
-9.9263735 8.8464422 1.333432 12.25
-9.8690548 8.8519554 1.2761807 38.4785
-3.1405354 8.8695946 1.2253721 1.0000019
-2.8190269 8.8862419 1.2398937 1.0000076
-2.5070806 8.8941107 1.2424922 1
-2.2453568 8.9340124 1.2224299 1.0039226
-2.0109634 8.9069004 1.2456813 1.5
-1.5872495 8.9049187 1.3389664 16.148087
-1.2587129 8.9179697 1.2420053 28.469345
-0.99433208 8.9282627 1.2538569 32.960968
-0.79597878 8.8918886 1.2476051 18.032787
0.58501267 8.7752151 1.3409992 1.0429688
0.65040171 8.7577944 1.302882 9.5559502
8.8360023 8.8757267 1.3016751 27.0625
-10.839199 9.2961893 1.4589226 3
-10.726238 9.1494017 1.4686937 29.140625
-9.913909 9.1930809 1.2835095 27.96875
-9.8772297 9.1649323 1.2599 46.546745
-3.162039 9.2368441 1.2372382 1.6250038
-2.8829219 9.1975708 1.2357429 1.03125
-2.4702437 9.0697947 1.2450206 1.0006521
-2.3298678 9.1802826 1.2271646 1.7630254
8.6357479 9.1650887 1.3736017 3
8.8359623 9.0626898 1.3402262 29.5
9.010581 9.2547331 1.2124587 24
10.630915 9.0761547 1.4076343 7.25
10.91115 9.0613556 1.4031547 10.6875
11.207684 9.1039782 1.4509239 6.75
11.595466 9.0964642 1.4335773 5
-9.9117937 9.423358 1.3194247 16
-9.8807964 9.4730654 1.2563642 44.153885
-3.0796466 9.329319 1.2145171 1.6741736
-2.7783351 9.3472996 1.2222073 1.0002823
-2.6309514 9.3524694 1.213891 1.2822509
-2.3195274 9.3317032 1.2142894 1.0404416
-0.07396546 9.5148621 1.3198448 1.7117319
0.022858422 9.5609808 1.3435736 1.25
9.0396118 9.5364456 1.2710456 29
-9.9133511 9.6582623 1.3441756 12.5
-9.8743076 9.6926365 1.2429812 53.483932
-0.021671882 9.6148291 1.2646952 1.536092
0.048879817 9.741127 1.3044076 1.6227052
2.1589601 9.837059 1.2307378 1
9.0261364 9.8230257 1.3394209 41
-10.828159 9.9001446 1.4567937 3
-9.9107304 10.167431 1.2789254 28.03125
-9.881031 10.13166 1.2377348 41.323273
0.17820653 10.116474 1.2573881 2.6706042
0.31538931 10.196709 1.3623278 3.578125
9.0380278 10.114471 1.3585086 48
11.657645 10.166708 1.3259754 3
-9.9340973 10.346205 1.3227386 13.3125
-9.8804417 10.297476 1.2363036 37.796967
0.25077578 10.217642 1.2503079 5.044311
0.33245882 10.244218 1.3287442 2.9454951
8.9984722 10.486335 1.3564743 48
9.0222816 10.291471 1.2911687 45.5
11.589758 10.441454 1.3274994 7
-9.9122372 10.681368 1.2925515 20.78125
-9.8853207 10.701643 1.2464406 32.529148
8.9800539 10.621289 1.4813961 51
9.0100927 10.786199 1.4160404 50
-10.785244 10.953379 1.4818243 19
-9.9354496 11.00924 1.3086133 13.606669
-9.8852081 10.994658 1.2374307 37.790108
8.9895897 10.923206 1.2795329 32
-9.906004 11.210026 1.2343426 34.115234
-9.8934116 11.326135 1.2507346 32.556782
-10.809344 11.484525 1.497382 5
-9.9212961 11.475201 1.2812991 22.866419
-9.8779793 11.528809 1.2514331 40.019127
5.011426 11.573928 1.2339466 11.542969
5.2152753 11.57283 1.2680272 11.558935
5.5848236 11.60389 1.3817163 15.185857
5.8765306 11.594204 1.3264668 6.8777723
6.0843015 11.625832 1.3691868 6.3333335
-9.9364738 11.754953 1.3460121 2.1197915
-9.8771019 11.749208 1.250597 6.9288759
5.4553623 11.70869 1.3355051 3
-9.8548412 12.147902 1.2914271 8.0857515
-9.9025803 12.413197 1.3016714 8
-9.8462725 12.384197 1.3194879 6.1817751
-10.84338 12.784394 1.4744455 7
-9.8567648 12.829397 1.3184133 8.0883789
-9.9322128 13.034233 1.2893417 4.5
-9.8659954 13.02215 1.3164842 5.9802246
-10.035118 13.413605 1.3150009 2
-9.8464603 13.350069 1.3276958 5.3173828
-9.9147377 13.648575 1.3661966 3.59375
-9.8701601 13.598267 1.3555925 4.1315103
5.0359273 13.776733 1.2605067 3
5.2066765 13.78946 1.3197365 16
5.4664621 13.785976 1.4107332 8.8828125
5.8464479 13.793883 1.2941445 19.25
6.1492939 13.796463 1.4261324 19
6.5048046 13.781529 1.3482995 31
6.8033099 13.789615 1.2944947 26
7.1694307 13.756639 1.2064714 44
7.3572783 13.704016 1.3653576 17.75
-10.004886 13.976269 1.3092175 20.521891
-9.8687 13.839703 1.3474675 4.5
-7.2432842 14.095022 1.4081671 84.125
-7.0559473 14.088313 1.3351848 74.837891
5.018806 13.863973 1.2171054 7.1255717
5.2140293 13.816624 1.3071396 15.197875
5.5230236 13.870425 1.2501316 6.9966254
5.7929373 13.852258 1.3706053 6.8902779
6.1350698 13.827116 1.2778935 3.1352072
6.4042153 13.833616 1.3693898 11.5
6.725174 13.859461 1.352017 13
6.9719219 13.830519 1.3105797 9.5
7.3016047 13.82611 1.3418521 40
-9.9298277 14.243467 1.3068647 4.9943309
-9.7418699 14.364403 1.4116668 18.098757
-7.5239954 14.224177 1.2727671 7.0566406
-7.2903204 14.135979 1.3044491 57.780548
-6.9501495 14.241859 1.4013817 55.405678
-6.7963333 14.352795 1.2403402 47.849995
0.54705602 14.314349 1.2799015 17.9375
0.88075149 14.253173 1.3189523 50.633602
1.0241809 14.259341 1.3067765 57.709808
1.3196006 14.305239 1.3716295 14.208109
17.20977 14.369886 1.4512445 17
-10.514503 14.466511 1.4570119 5.375
-10.416862 14.53941 1.432313 4.234375
-9.9266415 14.427969 1.336956 21.057129
-9.7038555 14.42864 1.3947173 17.77964
-9.5860052 14.423981 1.4337628 8.9375
-6.7765541 14.506878 1.4048127 4.0602908
16.932486 14.472648 1.4499607 35.25
17.225809 14.427219 1.4838825 44
25.11208 14.618094 1.2316622 38.339111
25.404327 14.617559 1.3751316 28.625
25.695641 14.548185 1.2482207 16.754177
25.832344 14.467093 1.3737193 10.5
33.242474 14.634458 1.2603713 27
33.407356 14.578613 1.3151617 16.03125
33.6786 14.583078 1.3702967 15.5
-10.48152 14.732497 1.4971952 2
16.775127 14.888006 1.450207 33.5
16.892391 14.758236 1.4648896 32
25.021872 14.794137 1.351835 28.167318
33.141544 14.78223 1.3087826 24.171875
24.966921 15.11673 1.322776 21.810873
33.098755 15.10841 1.3039256 27.71875
24.892227 15.382524 1.3658586 8.5
24.978851 15.335256 1.356204 9.25
32.99073 15.35948 1.3772867 14.25
33.086346 15.346153 1.3426582 14.96875
4.1516752 15.887276 1.2658986 4
-10.901164 16.057083 1.3419859 17.400574
-10.439667 16.180595 1.2179658 3
-9.9739389 16.067593 1.2842011 8.7711582
-9.8420839 16.152014 1.2632649 5.5
-10.881136 16.355913 1.2755334 20.369848
-10.328877 16.230137 1.2078781 4
-9.9616909 16.208521 1.2282541 3
-10.913378 16.717918 1.3589476 12.137828
-10.785263 16.707947 1.2796073 17.25
-10.839693 16.879768 1.3495225 15.92289
-10.877261 17.331825 1.2929757 11.741146
-10.906528 17.529568 1.3454548 6.0904222
-10.790685 17.588184 1.3596357 16
-7.5446353 17.69581 1.2151392 52
-7.4989872 17.69845 1.4542905 67
-6.9995356 17.697701 1.2739193 85.5
-6.7107944 17.697477 1.2960814 150
-6.5655107 17.697178 1.20964 149
-6.2192726 17.695618 1.4547583 40
-10.914042 17.820526 1.3765738 4.4985924
-10.760136 17.781809 1.4092922 16.5
-7.6120672 17.762447 1.4288805 29.452898
-7.3483973 17.749168 1.2914894 63.250011
-7.0111055 17.739944 1.3576541 95.149826
-6.7439289 17.785217 1.3630693 51.848419
-6.4804583 17.777699 1.4160802 59.605759
-6.1476603 17.757309 1.4124908 81.521873
-5.8895001 17.805435 1.3119236 43.724831
-5.6512146 17.954407 1.3803492 4.1039391
-3.0963497 17.934731 1.4195617 3
-0.37545502 17.891876 1.2870963 22.343252
-0.21795243 17.842989 1.3000388 82.724579
0.0921987 17.830845 1.3335017 86.611031
0.36723471 17.870468 1.3243189 35.186394
0.75992167 17.797134 1.3903353 86.832123
0.91635573 17.827192 1.3279362 67.625
2.058517 17.969162 1.4435978 56.464348
2.1995039 17.97747 1.4294314 38.703125
2.5217667 17.938908 1.3003573 65.333336
2.7823968 17.905113 1.2728739 108.60775
3.231703 17.919266 1.2958963 113.74716
3.4371243 17.943802 1.3424864 65.110153
3.8568788 17.949085 1.4076965 115.09448
4.0205002 17.993584 1.4032097 129.24385
4.4273596 17.981722 1.3901349 121.49956
4.5446172 17.984779 1.2770917 127.75977
5.0094976 17.991608 1.2714938 134.34804
5.1944733 17.987776 1.2783693 127.4568
5.5296402 17.974878 1.3644212 138.73557
5.8025055 17.971636 1.3762264 123.9338
6.0428357 17.981258 1.2906852 117.74257
6.3234158 17.944878 1.266114 7.375
8.7468109 17.987226 1.4961997 55
32.058674 17.919937 1.2922883 21.5
32.176529 17.764395 1.2502556 17.75
32.928539 17.931662 1.261622 23.875
-10.926401 18.161465 1.4238694 3.4432321
-7.7570457 18.05242 1.4691948 12
-5.6327677 18.020094 1.4579573 3.1210175
-3.1604927 18.03274 1.4637043 3
2.010905 18.056641 1.2721862 75.854279
2.1301072 18.049721 1.248208 103.13313
2.9111652 18.028194 1.3558426 7
3.5282426 18.013458 1.3237808 7.5
3.6825204 18.01919 1.413304 3
4.0740175 18.013563 1.2982976 86.25
4.3206239 18.00495 1.3716125 116.48959
4.7206335 18.003405 1.3515693 127.03125
5.0217519 18.00338 1.3494858 116.98193
5.2835302 18.004881 1.2478786 120.88805
5.4957914 18.00824 1.3017111 130.67685
5.772912 18.01965 1.3177626 126.24304
6.0565143 18.013157 1.401418 91.391968
6.4700069 18.037991 1.2850115 5.75
6.6476612 18.135302 1.4035789 5.3365479
7.1307783 18.110165 1.4833546 6.125
7.4900084 18.17835 1.4293271 3
7.5653038 18.121658 1.4735965 4.5
8.3206024 18.143581 1.3112593 15
22.78882 18.216999 1.344623 25
22.920414 18.23609 1.3467268 8
23.499172 18.195328 1.2172437 15.5
23.874382 18.222836 1.3166221 36
24.111105 18.19301 1.3374288 17
24.476662 18.072857 1.2272861 19.5
24.773195 18.158619 1.3088379 18.25
25.107786 18.198961 1.3560672 21.5
25.41037 18.194012 1.3062606 18.171875
25.511581 18.246567 1.3941586 10.5
25.927773 18.191856 1.3084517 30.75
26.212875 18.20932 1.2833627 32
26.596119 18.265478 1.2242737 20.25
26.806511 18.225195 1.4133728 28.9375
27.181847 18.269112 1.2908373 31.75
27.419533 18.239609 1.3278315 31.84375
27.810951 18.242607 1.2874217 30.75
28.088966 18.23946 1.4041476 29.375
28.345139 18.267393 1.2666578 30.125
28.583668 18.253447 1.3667338 36.71875
31.764137 18.246994 1.3112289 26.25
31.948215 18.091822 1.3252443 35
32.464508 18.235712 1.3705434 21
32.892986 18.175238 1.2484225 23.375
33.296852 18.222336 1.4583558 23
33.433605 18.248611 1.4601635 30
-10.871561 18.452431 1.3913481 14.929852
-0.33693027 18.404615 1.4600606 5.5
25.340033 18.337948 1.3036327 9
26.553406 18.320568 1.3050364 15
26.837036 18.361217 1.3414756 15
27.054701 18.322922 1.4927566 21
27.308693 18.315996 1.2081547 16
27.798546 18.311096 1.2733951 27.75
28.255024 18.30678 1.2160059 18
28.729183 18.319777 1.231384 25
